# 3D point list with one line of data per point:
#   POINT3D_ID, X, Y, Z, R, G, B, ERROR, TRACK[] as (IMAGE_ID, POINT2D_IDX)
# Number of points: 403, mean track length: 5.0209606986899562
1888 0.2758475805953251 2.2740299793658596 1.8799036365079234 29 25 20 0.6116927026246346 88 1267 35 1207 90 874 20 436
1887 -1.0163934921038897 1.7818267431082155 1.1095335827031962 0 0 0 1.7812179594375841 49 1169 88 1204 90 732 20 285 46 1083
1886 0.74912971635588443 2.4038439947758228 1.9400282269059892 227 208 169 0.67486231641268379 36 625 88 1161 35 1031 90 690
1885 1.0622599632472598 2.1195018087536708 2.5031527342569482 233 218 179 0.41928545716046067 4 663 63 773 88 1143 35 1022 90 680
1884 -0.42281240623016769 2.8262900095598082 1.5053269488166861 73 82 83 0.30820427181139154 63 1172 88 1012 35 897 90 791 23 1005 82 639 98 938 3 842 17 607 15 685
1882 -0.28815101295992152 2.8285601814002255 1.3959477193715168 73 55 49 0.44257639234488105 63 1076 88 855 35 911 90 563 23 917 55 558
1881 -0.29102436321242897 2.3375240140116458 1.5235786271610536 9 5 2 0.29664667699330333 63 897 90 161 88 610
1880 -0.73801570000309402 2.718442373116476 1.3118726887884389 4 4 7 0.1524015883958002 88 812 35 708
1879 -0.25034591482369001 2.147407186807341 1.481269534877387 128 140 170 0.20876277688664696 63 871 88 805 35 706 90 373 89 342
1877 0.56727866869340915 2.5814664989665745 1.7244816434940331 39 28 24 0.1797318316322436 63 299 88 704 35 613
1875 0.60878696170134949 2.2720589294759201 2.2899498090173456 228 212 173 0.19431095493805914 49 451 91 278 88 691 35 601 90 265 23 530 55 147
1874 0.013973205530510006 2.0894841716776713 1.5978448989698328 9 14 21 0.55534143925369672 45 1039 88 623 35 519 90 178 49 832 89 531
1873 0.47116679685904511 1.0498716348814439 2.1667185299758471 148 81 11 0.2169586799074803 91 5 88 477 35 390 90 28 23 11 15 397 89 371
1872 1.2111454682582086 2.4989964588491831 2.1548769728351007 90 89 83 1.5693353868890729 36 326 88 444
1871 0.38172560963998192 2.4311484856605579 1.7835763458644158 224 203 156 1.1823330587499699 49 573 88 368 35 296 23 295
1870 0.23093167432739367 2.5585481150967477 1.8480534299085551 1 1 3 0.21121802617619195 49 603 88 361 35 285 23 302
1869 0.52328406025639651 2.2375304890315881 2.3390301461716811 83 76 61 0.28078212152245435 63 154 88 337 35 275 23 142 89 252
1868 0.51709911183322843 2.214693567967966 2.3487654378506519 233 216 176 0.15255009096983776 49 402 88 327 35 269 23 134
1867 -0.54448912104573066 2.7538446239014953 1.5057354470357185 0 1 2 0.33955543009067696 63 383 88 234 35 202
1866 0.27535308465840735 1.9690933095324386 1.9665403512048887 57 52 60 0.15988526625221741 91 112 88 224 35 212
1865 -0.94552762335272933 2.9900408564557925 1.3342998998385587 91 97 90 0.59409357002959762 91 695 88 205 35 159
1864 -0.19555793256156237 2.1444936286636613 1.5058137311747826 8 9 12 0.66490372158707634 14 623 51 1207 1 337 94 1237 27 967 45 1306 92 618 48 1066 100 1096 37 530 26 554 83 1019 76 719 24 634 81 351 47 438 66 631 46 1207 21 730
1863 0.45715847098569112 1.8910332712570523 2.2597659127030787 0 0 0 1.0229025301392851 24 707 1 387
1862 -0.1699080994459819 1.618977808144022 1.5308047511457783 0 0 0 1.3141986067379994 14 648 51 1227 1 368
1861 -0.57286467071041103 2.4546745459740631 1.4458400076164883 3 3 4 2.2305120857437615 51 1238 66 686 1 361
1860 -0.78769319637023072 2.1010058453685749 1.1054212453376273 0 0 0 0.63067895070643742 51 1163 1 331
1859 -0.62484357978119953 1.6262165655409897 1.618447708745377 245 234 132 0.67864543765129537 14 613 51 1219 1 329 46 1236
1858 0.61164010383774847 0.99701272702380439 2.2969383745672851 155 109 22 0.2830846141227048 66 656 1 328
1857 0.61164010383774847 0.99701272702380439 2.2969383745672851 155 109 22 0.2830846141227048 66 655 1 327
1856 0.439799424498789 1.855552761777705 2.8827448682904944 98 66 48 1.2169127362075665 14 599 51 1209 1 318
1855 -0.89292496521209941 3.0405645993766952 1.173240969869314 137 93 70 0.5337263600880473 47 342 66 531 1 202
1854 0.1189813059274431 1.4343357148032057 2.0588472141626193 0 0 0 0.024474179281354112 47 174 1 161
1853 -0.48088922427112429 1.7450525291018688 1.3947670848310323 253 209 59 0.39598350607679111 51 990 66 18 1 156
1852 -0.91223778808586831 3.0558060700569807 1.2711464073705139 51 34 27 0.82599199835757897 47 344 1 99 66 534
1851 -0.16639012440811574 2.5548875060266329 1.7063212791634392 39 28 17 0.13688151083927697 14 125 1 91
1850 0.078959158016145559 1.84669089867717 2.858564506245902 0 0 0 0.61224892565371503 47 66 51 845 1 83
1849 0.29011924101756248 1.7110164460588744 1.6023875715545168 22 21 26 0.060906204543174441 14 311 1 37
1848 -0.42536685758032677 2.9617629102190097 1.2345086500128533 53 37 31 0.1008572749871699 47 413 66 603
1846 -0.28621403212492275 2.4454603804610877 1.7845353811115994 13 2 0 2.2990157979337575 24 423 76 330 81 216 47 77 66 287
1845 -0.77466316929550183 1.902952915877721 1.5384287848663989 0 0 0 1.7988786539374819 47 520 83 1279 66 716
1844 -0.77466316929550183 1.902952915877721 1.5384287848663989 0 0 0 1.7988786539374819 47 519 83 1278 66 715
1841 0.26789347372481787 1.7916101009448331 2.0449427353973997 163 152 149 0.50928066648486936 14 624 47 439 66 630
1840 1.3825575117587003 2.4303796473032646 2.1294089516367998 0 0 0 0.042858197137307048 76 754 66 618
1837 0.35652523686400783 1.7674387706399433 2.0161924407103253 0 0 0 0.057693522663855946 24 515 66 575
1836 -0.29357742798974934 2.8315720013836674 1.4022190280777247 63 40 31 1.2241749935416566 24 610 66 532 1 257 14 602
1835 0.19162393489742199 2.069955672816735 1.9423007478896939 112 88 22 0.15389693815263253 24 401 47 226 66 415
1834 0.20961795028735755 1.0365910765495168 1.6361884986322002 12 11 14 1.5148633151247146 47 149 91 525 66 348
1833 1.0235637897737886 2.043972337344016 2.5616782794703705 238 221 181 0.021127357373909226 76 397 66 329
1831 0.23472090276937263 2.3281796889731505 1.7377242731648173 60 65 86 0.044642056812754016 47 238 66 272
1830 -0.59794828213600104 2.5634045579113622 1.3745527710259062 57 62 80 0.13801925314744101 24 411 66 262
1829 0.84463187382937033 2.46968106091941 1.9932447657617505 100 67 50 1.9837526278548188 24 183 66 185 1 134
1828 -0.86047522211816008 1.9157210398345352 1.0965335393846161 12 12 16 0.33788503703630651 24 366 51 20 100 794 93 229 83 744 91 560 4 56 14 19 76 449 47 8 66 196
1827 0.62185521503677998 2.3766963525944833 1.8478284625298269 226 205 163 0.91970789087934968 24 711 47 513 66 711
1826 -0.77310402331223416 2.3424525268256815 1.3150132910803203 99 87 26 0.30741174130547683 14 657 47 509 66 707 1 386
1825 -0.61883944870883556 1.6288290595730064 1.4567224720692633 192 147 38 0.72226592138853951 24 694 47 498 66 698
1824 0.1791957280575911 1.2515744875516133 1.7380905907653572 11 14 17 0.47022746573901442 24 690 47 492 66 683
1823 -0.42081848047254872 1.7625555999832063 1.7587057701839515 8 6 5 0.70220359632203777 76 832 47 487 66 685
1822 -0.060069076426301569 2.214511104017006 1.6027155999325946 80 59 45 1.7993056390111488 14 634 47 485 66 679 1 350 51 1225
1821 0.3844088095942142 2.5055532367494782 1.8323057828413805 181 163 123 0.76740119906793203 24 668 47 456 66 601
1820 0.25589368098638998 2.3152053194696283 1.7334784004243662 41 44 61 0.86121697400126596 24 640 81 364 47 446 66 640
1819 -0.27145225407876988 2.2727032488209788 1.7101866479647567 79 59 10 1.4181870597967134 24 592 76 774 47 441 66 634
1818 -0.042254496809721799 1.9894132708680419 1.6119171358361537 70 37 7 0.83797542254486101 24 633 47 437 66 572
1817 -0.50549506281871925 2.9573448625855763 1.2983697451951495 53 36 30 0.34809327611212126 24 613 47 412 81 383 66 604
1816 -0.22080618188873039 2.4466859243087566 1.636064074543397 79 60 15 0.041912178217819736 24 601 47 404 66 590
1815 -0.29166604279208619 2.2805393949665538 1.4948755184876401 106 95 29 0.21448154301937344 14 480 81 355 47 392 66 580 1 182
1814 -0.25217912322892805 2.1570610640738823 1.6326659835211788 84 69 18 1.1963360150393347 24 528 76 639 47 390 66 577
1813 -0.44744944581382595 1.8245407410959731 1.3185503522827227 155 140 103 0.056395819262146672 76 761 47 374 66 557
1812 0.83484967668274035 2.4701959676244898 1.8749005340925609 38 25 21 0.29268680687826393 81 247 47 352 66 540
1811 -0.60553457641747199 3.042872505155183 1.2560775584176254 87 85 80 0.64253114719490168 51 866 47 351 66 608
1810 -0.73378911010469117 2.7579521887485123 1.4145690815182435 3 3 3 0.4274031308694336 14 350 47 333
1809 0.22203777600756849 2.1371380466033538 1.9854387700124796 118 94 22 0.14009910912875378 76 654 47 322 66 517 1 190
1808 0.29827403304261263 1.8832926167265158 1.9387093025614375 11 10 11 0.69482520150418081 76 636 81 34 47 311
1807 0.12406020525392281 1.9996554802090423 1.6634400608854427 118 94 29 0.56102973077616547 24 576 47 308 66 503
1806 -0.88580891252193938 2.2937722664764695 1.2586829474480103 132 116 42 0.764459401628522 14 459 47 305 66 573 1 168
1805 -0.97343201829816017 1.7287078385722747 1.4019305378096469 239 191 56 0.96191990615601786 24 487 47 291 66 551
1804 0.860471243384476 1.425017225020105 1.6569260972961601 97 72 15 0.49965462711626152 24 566 47 290
1803 -0.9252216800505918 1.7292977368610449 1.1135265513822783 0 0 0 0.71354238669023129 81 330 47 278
1802 0.14204876096130378 1.4127397851732164 1.384293119043692 0 0 0 0.74849770388342007 51 1101 47 276 66 544
1801 0.19159925839128616 2.0976154140259746 1.9743507649855676 71 30 1 0.27129768970493445 24 406 47 228 66 419 14 86
1800 -0.50750427147601884 2.389874046936681 1.4932375078519995 74 62 13 0.13688644395746619 24 404 47 224 66 412
1799 0.22563129990664521 1.9696522316570138 1.9183760051922931 62 29 1 0.1129023254712935 14 74 81 172 47 211 66 402 66 403
1798 0.24404712450108074 1.9057507369816171 1.8930907015108063 70 33 2 0.13248466914544868 51 530 47 208 66 397
1797 0.095028481309110402 1.9079358281845771 1.6761776888444833 79 53 7 0.18928979966185669 24 378 47 189 66 382
1796 -0.41160321523648846 1.8735688715920498 1.2380924837712666 49 38 34 0.13901917609868733 76 454 47 169 66 365
1795 -0.82321875276311285 1.9064304266257706 1.1566808693279091 98 65 11 0.085851234921557218 76 452 47 167 66 364
1794 0.19590762028061171 1.3865435777018025 1.4266167935939116 0 0 0 0.17995677121914605 51 984 47 152
1793 -0.31840026849056258 2.8663049520803634 1.3335131009408026 37 25 22 0.07907223953601912 24 343 47 132 66 332
1792 0.65851067583221012 1.8840071191153189 2.91023458115981 235 217 175 0.29309358007672032 76 526 47 102 66 315
1791 0.59236347738533313 1.8736535798522553 2.8914941708688984 119 106 81 0.21195987026409394 24 261 47 99 66 313
1789 -0.37500734410933567 2.5318722788185815 1.5911601385684693 24 13 7 0.21769679402259667 76 317 47 70 66 429
1788 -0.7217739231106749 2.650362272064537 1.3559489444110921 41 44 59 0.12546761517788019 76 306 47 60 66 267
1787 0.29343821826351735 2.0918731220034901 2.0220985005928558 77 81 97 0.093753214123710807 76 290 47 51 66 260
1786 -0.4058991837574078 2.4231007194540428 1.3998319223341047 78 66 14 0.54341909261008137 81 195 47 43 66 250
1785 -0.38633967772055045 1.912210133825845 1.4151624628689223 255 234 73 0.17825952519844471 76 238 47 19 66 212
1783 0.34657341203027697 1.8495021084832373 1.9115382791498823 166 145 129 0.4792499730024623 83 571 91 605 76 266 24 219 81 31 37 69 26 310
1782 0.062655175861336954 1.7046555330602249 1.8059288361047703 132 103 33 0.57037226021894238 81 483 47 516 14 662
1781 -0.76843314348276626 1.8533500805939076 1.4586868640736343 16 16 18 0.39747249677200386 24 699 81 476
1780 -0.94955016451634566 2.230862505210792 1.1660697819581172 0 0 0 0.68303863647499785 24 696 81 475 47 495 66 700
1779 -0.083608536636563147 2.167083452994444 1.7805470722709373 90 68 32 0.83144366309452555 24 658 81 460 66 633
1778 0.27103505783784093 1.6392593819436068 1.9536582281921679 0 0 0 2.498158444204825 24 657 91 1171 93 583 81 458
1777 -0.4124177490547204 2.7577065728442074 1.5332518603146352 2 3 4 1.0679191673464936 76 827 81 449 47 453
1776 0.073537973826647465 2.5121016984714175 1.7945337433952435 53 63 87 0.34977760983499667 24 667 81 444 47 474
1775 0.3881062657565138 2.3499599000315756 1.8638995490710515 197 176 138 1.5643538420459171 24 683 81 442 47 473 66 641
1774 0.24190350697690419 1.7311579810321858 1.9080539284740334 124 90 21 1.4365216553367393 24 632 81 410 47 433
1773 -0.78316743725103743 1.5976552198845813 1.2409192650043825 243 0 0 0.60271442040307543 24 556 54 719 81 403 47 362 66 546
1772 -0.66334996455136852 3.0168250250553394 1.2289212279066608 57 38 31 0.18365017537948564 24 617 81 385 76 743 14 505
1771 0.25217328029320729 2.7162275067299748 1.6100612231602689 37 26 24 0.29161037184756033 24 614 81 380 47 418 66 610
1770 0.19590683017061747 2.6152867171015473 1.6547774108142903 1 1 2 0.80769352115970283 24 649 81 376 47 454 66 643
1769 -0.34707422580875641 2.4886899918926542 1.5820851124150987 78 62 15 0.30419396774930629 24 599 81 367 47 402 76 731 66 588 1 248
1768 -0.59901138234712292 2.5428103764717123 1.3658510044217922 44 46 62 0.13409921089556817 24 597 81 363 47 321 66 515
1767 0.34931973527493398 2.0541349148658141 2.170624188482988 0 0 0 1.7877950918362242 24 594 81 361 47 401
1766 -0.38257620899667233 2.3572228092063838 1.5641209806993583 81 70 17 0.086183935808811285 24 590 81 358 47 396 66 584
1765 0.60473676009835564 1.1307012445615412 1.2744326293646613 0 0 0 1.3970382301775139 24 475 26 428 81 325
1764 0.17272166377608883 2.6897442565755796 1.6110832369542918 50 37 32 0.35774588101993449 24 549 81 322
1763 0.32058693606056693 2.4943278059391245 1.9091846625517979 198 179 141 1.5388753624415761 24 545 81 311 47 455 66 602
1762 -0.5350641495685281 2.5750496834883481 1.4168188482213719 58 65 86 0.21881999792457155 24 415 81 303 47 233
1761 -0.5350641495685281 2.5750496834883481 1.4168188482213719 58 65 86 0.21881999792457155 24 414 81 302 47 232
1760 0.22728059589472632 2.0682280852820276 1.9743785910993361 115 93 24 0.12840997808948057 24 531 81 297 47 320 66 513
1759 -0.35305645739058555 2.309265022204408 1.5619367818128136 14 8 6 0.4193794688875766 24 399 81 296 47 219 76 277 66 409
1757 0.26068622166553035 2.0605722690699286 2.0125020313918913 6 3 3 0.4815384347227652 24 405 81 192 66 514
1756 -0.48743003217729314 2.34749350183536 1.5130577094029769 13 6 3 0.16384763582494011 24 398 81 191 47 217 66 407
1755 -0.61272697802427634 2.3912940080854872 1.4537209068782013 5 3 2 0.45839731014161328 24 396 54 365 81 189 47 215 66 405
1754 0.003940771611937597 2.7555252052046169 1.5142924481373921 92 101 101 0.6910470553234519 24 344 81 126 66 335 47 137
1753 -0.52812301653310989 2.632555603827385 1.4470958027820988 33 18 4 0.13270685627114631 24 281 81 82
1752 -0.57143543446304956 2.6081017319445268 1.4292746142927897 32 22 3 0.21539943485868959 24 266 81 77 47 63 66 268
1751 -0.44268421338513969 2.491888870400258 1.5279034003360557 33 24 2 0.50838419596954398 24 70 37 149 81 66 66 98
1750 -0.99318608019848686 1.8983790575932924 1.5301775867150966 249 188 50 0.27112355472915789 76 231 24 17
1749 0.28366846631715981 1.8813037685175871 1.886776904343022 113 92 24 0.24021701498425185 37 303 26 313 24 520 91 1060 76 634 14 471 81 287 47 310
1748 0.54557445062531984 2.5882280026777007 1.7333605965074477 36 25 23 0.95402942795214063 76 828 24 684 81 451 47 478 66 673
1747 0.23713550893227978 2.4542438209613122 1.8305586904235833 48 49 64 0.19100357265024046 76 787 47 452 66 642
1746 -0.34394770837624938 2.5649785271097585 1.6391275835942916 87 75 21 0.11658053709929696 76 783 24 644 47 448
1745 -0.79890307942576066 3.0373914030866884 1.2795114663210689 59 40 32 1.1886955163798867 76 683 24 616 1 213
1744 -0.79683572084036969 3.058455843475532 1.1817554300502926 58 40 32 0.13367094678131708 76 682 24 615
1743 -0.87025094040938711 3.0267683206518434 1.1988326481451679 102 104 93 0.092327423049865437 76 676 24 611
1742 -0.27260985449460412 2.4715581990948361 1.5980141995059596 78 61 15 0.25547370346210851 76 663 24 600 47 403 66 589
1741 0.24439078905356906 2.1541110361512263 2.1637654705416653 65 64 70 0.45871346546431901 76 811 24 598 47 447 66 665
1740 -0.93209869292325709 2.5338662952501516 1.2377129209369473 82 100 136 0.37269754566800978 76 725 24 589 81 357 47 394 66 582 1 62
1739 0.064962834403700973 2.043429710637557 1.651494103219399 73 81 86 0.58287416834223305 76 721 24 577 81 350
1738 -0.59895532029861243 3.0013268580957742 1.2506857317831199 50 34 27 0.052652900978684886 93 557 24 552
1737 0.34708524917618955 1.854034401678867 1.9248613110615056 172 159 153 0.713624608449131 26 309 24 521 81 288
1736 -0.59845613855291391 2.5627178571390052 1.3761737640244773 57 61 79 0.14815235313292519 76 297 24 410 81 208 47 54 66 263
1735 -0.41442882655797969 2.3339790010895767 1.5280261575565943 6 5 4 0.37362207196233166 76 276 24 402 81 295 47 218 66 408
1734 -0.58242167183995008 2.9665302888085234 1.2795662710503961 119 82 63 0.17664081208882995 76 584 24 350 81 129 66 177
1733 0.95312707212604542 2.4668200702142102 1.9104529082115345 106 77 64 0.13608799737087215 76 596 24 348 1 133
1732 -0.53961887310775392 2.6897017071488452 1.4968785663270279 59 68 93 0.1588366993769951 14 113 24 307 81 102 66 134
1731 -0.63045586813295384 2.6254379773995082 1.3989653929211037 31 20 7 0.18609908903307287 93 127 24 262 81 76 100 702 47 62
1730 0.06266965571029412 2.3918221947138494 1.7029250512013823 34 24 4 0.19241708841301328 76 335 24 260 66 276
1729 0.060321036031499901 2.391595910140099 1.7072330829913285 34 24 4 0.25556551128111216 76 334 24 259 47 69 66 275
1728 -0.60101831673230455 2.5871173447800428 1.3971057583432225 26 19 13 0.16256332491769332 37 179 24 253 81 67 66 97
1727 -0.63398401813628125 2.5651527089868442 1.3597512038956741 29 19 7 0.19954661007528435 76 292 24 248 81 204 47 50 66 257
1725 -0.85428381391696651 1.9455122365785478 1.11422929987087 108 95 26 0.22884489749153833 76 224 24 200 66 17
1724 -0.63215102019087221 2.687968368561529 1.4262212430333774 30 21 10 0.20799884642534014 48 454 24 96
1722 0.87151369201207707 2.1406104070400218 2.4287279622520264 121 109 85 0.59818997525389583 14 670 76 859 24 713
1721 0.79005197274616579 1.8860480982102876 2.9064490131625078 155 148 128 1.6267979225938187 14 659 51 1254 1 383
1720 -0.6037534094817183 1.648422968334103 1.397129890708916 255 212 60 1.6974103810929548 14 647 76 843 1 385
1718 -0.86669346528746749 2.7213986390822686 1.2790874391486489 0 0 0 1.231772970607917 14 649 51 1244 47 501 66 701 1 377
1717 -0.96341272889369389 2.2678253152519638 1.1682773435655294 0 0 0 2.071502102522794 14 640 51 1243 1 369
1716 0.18997635024603432 2.3898872367364805 1.9745733295332419 44 42 43 1.165000546221308 14 637 51 1241 1 363
1715 0.16875013675272596 2.2269337491434484 1.7319637275384929 15 16 20 1.9072653457351187 14 643 51 1240 1 371
1714 -0.47787905057229602 2.6336371298422194 1.4348749746362495 60 67 91 1.7619819148816083 14 644 51 1239 1 373
1713 -0.81982480674105629 2.0334439854474033 1.1951346729788392 101 90 27 1.355355725443756 14 635 51 1228 1 348 46 1221
1712 -0.88790049671294546 1.739466363384097 1.1953071637151091 255 233 68 0.52737171695074037 14 630 51 1226
1711 1.3586571411663679 2.285979605914195 2.1881456137899256 241 221 182 0.70909292286204195 14 609 51 1215 46 1218
1707 0.5082413043595031 1.1040391454648202 2.1529544686659166 255 228 63 1.2994491637828227 14 576 51 1203 21 757
1706 1.347734146348881 2.3408956349389944 2.1308574743583271 64 43 33 0.16407833436215349 14 611 51 1197 1 323
1705 1.2823304593974787 2.363814127875421 2.0921845930813112 46 31 25 0.23282477095003862 14 610 51 1196 1 322
1703 -0.44786823735267445 2.9178821414484557 1.3282692712372111 46 32 27 0.17231292278826749 14 601 51 1189
1702 0.0644854766128483 1.9800982257653674 1.7958268683531444 6 4 3 0.41514734603616682 14 550 51 1179 1 239
1701 0.0644854766128483 1.9800982257653674 1.7958268683531444 6 4 3 0.41514734603616682 14 549 51 1178 1 238
1700 0.14455724531147954 1.6738688366954482 2.0479434823233404 175 131 48 0.6907270652013654 14 589 51 1177 1 299
1699 1.0384639663403572 1.3453507120309238 1.7445866593551294 0 0 0 0.17990614513933817 14 540 51 1176
1698 -0.54472377096832192 1.6493329316626917 1.4436964540419635 63 38 13 0.23385726770947213 14 529 51 1161 1 292
1696 0.06689001168705988 2.0709672113105944 1.8595164814228007 61 50 38 0.56574532269737221 14 482 51 1136 1 245
1695 -0.65141848126649748 2.5984959508257459 1.3450796271199166 49 54 75 0.28189411703826683 14 556 51 1135 1 246
1694 0.064731572543736016 1.9462374143479517 1.6417936566372804 123 98 24 0.13875005817419678 14 546 51 1128 1 234
1693 -0.33200413397984047 2.1949162685051329 1.4141518997821445 53 58 80 0.31275418362193308 14 590 51 1127 1 236
1692 0.17517582464609421 1.4305126561998414 1.4187599680049834 255 226 61 0.18230112437818602 14 430 51 1103 1 144
1691 -0.7741116526493601 1.8437954195569457 1.1057668907858627 88 50 4 0.35989063163609142 14 574 76 803 51 1102 1 224
1689 -0.68625198284648781 1.5370823994352438 1.6340082740156978 0 0 0 0.85366281258584142 14 527 51 1100 1 225 46 1154
1688 1.3971994711014246 2.3578101814008749 2.1434607882457963 231 206 161 0.74672990272231021 14 424 51 1091 1 281 89 981 46 1081 64 248 41 658 21 709 96 915 70 633 85 464
1686 0.45873787344032219 2.650480835146563 1.3126643488994236 87 86 81 0.22669031984313856 48 1176 51 1067
1685 -0.62891178898870115 2.8854607448134719 1.4475250605706864 79 89 92 0.74118364415579618 14 365 76 677 51 1047
1684 0.24727399315406404 2.06456385760919 2.2395621588429653 255 221 55 0.51778918352402026 14 343 51 1042 46 1006
1683 -0.87197296085698806 2.5807138895756077 1.3151003498131588 55 59 74 1.3580189670017273 14 555 51 1026 1 185 66 585 47 397 46 970
1682 0.10472282264086946 1.9017852567427525 1.7296456102376161 107 87 24 0.5333310695963186 14 466 51 1023 1 235
1681 -0.86516620345819639 2.3304713866866731 1.1864079394103615 0 0 0 1.1984036443823478 14 318 51 1010 47 387 24 574 1 233
1680 -0.74833774306553402 2.1004813450470823 1.2409208034898771 12 10 13 0.4237288803153958 14 309 51 1002 1 38
1679 0.68128127634772828 1.2035009525328346 1.9890319733471176 119 83 17 0.52592328153042911 14 25 51 1000
1678 0.21375276066793045 1.4953534948049223 1.4508470935231792 109 89 20 0.21188519284766424 14 434 51 991 1 11
1677 -0.46674485782540792 1.7271090963175901 1.3094692480312113 151 105 19 0.23465235063202416 14 436 51 988 1 154 47 288 66 485
1676 0.47693407315938174 0.97844341678768432 2.244095653435056 239 230 78 0.99313205782778946 14 10 51 987 1 148
1675 -0.80346156332671215 1.8705382378841773 1.20697804144521 150 89 20 0.41762217458062817 14 438 51 986 1 226
1673 0.62835398873126991 2.250265400949659 2.3094222925043395 126 114 88 0.42068089149348248 14 380 51 906 1 108
1672 0.23778681022145973 2.3968449338904128 2.1426013037393234 225 201 154 0.3601676499944419 14 169 51 884 46 776 89 790 21 318
1670 -0.71309036534749182 2.6801293675635929 1.3855017974924007 48 53 72 0.36821896776168556 14 487 51 834 47 405 66 592
1669 0.29261259330553485 1.9283914779524054 2.0139679014319132 14 15 18 0.2340464581849615 14 75 51 832 1 67 46 463 21 289
1668 0.24356569714963119 1.6714781594550485 2.0779219999040959 167 165 168 0.37137012861378377 14 464 76 475 51 822 1 173
1667 -0.40825118422108342 1.8675934753115617 1.2868546071251969 196 194 209 0.42046561503214386 14 30 51 792 66 26 1 26 46 665
1666 0.18239985213086649 1.5079025525016128 1.4278020948134471 27 28 38 0.024404995102800055 14 295 51 789 1 9
1665 0.29138308037127159 0.92901798836999105 2.0652792743177981 202 118 11 0.2539036419920821 14 284 51 768 1 2 46 655 89 310
1664 1.3903408403328277 2.3499275840471752 2.1160936546974747 35 23 20 0.31185478521195542 14 280 51 765 1 138 46 376
1663 1.0872573280602804 2.0519382149330156 2.591398514915721 124 111 86 0.1776514251295862 14 252 51 720 46 636
1661 0.047982652640152459 2.6470601438705774 1.7374730183294502 4 5 7 0.020618754598741768 14 199 51 625
1660 0.17997391676627886 2.4226123097251659 2.1140914785366829 186 167 127 0.050659076287420481 14 166 51 610 46 542
1659 0.13891182473290289 2.3707926153854801 1.7543628054751923 56 67 93 0.048872561269349579 14 118 51 563
1658 -0.7435121081061683 2.7260190023287696 1.384549210637176 2 1 3 0.18977595185480112 14 94 51 539 47 243 66 433
1657 0.26226922190616275 1.8467064798911772 1.8619217782160178 27 29 38 0.13955433815447973 14 63 51 525 47 196 66 390 46 458
1656 0.21842410706748921 2.4387864419213199 1.8313639628808818 60 68 90 0.065436888264993484 76 381 51 233 47 105
1654 0.29951340852437003 1.820099415208037 2.9110465205173712 44 23 14 0.053485304397302813 91 101 51 163 46 508
1653 -0.80206347765268804 2.2826391565316873 1.2769634125217646 109 98 30 0.5006920724345193 76 261 51 83 47 34 66 231 46 69
1652 -0.40554374503964624 2.5177397753647628 1.5424534780371166 78 64 15 0.85701898484823558 37 538 26 568 76 779 83 1194 78 747 14 488 100 1038 93 300 83 825 24 642 81 418 47 444 66 638 1 247
1651 -0.86410141407203911 3.1217214517671374 1.1647996911094347 70 70 65 0.99018298433671603 4 226 91 729 100 1060 26 593 93 562 83 1167 49 925 4 726 76 747 63 1090 14 138 24 619 81 431 47 349 66 538 1 212 82 653 3 762 74 1111 86 394
1650 0.87151369201207707 2.1406104070400218 2.4287279622520264 104 96 75 0.59818997525389583 76 860 14 671 24 712
1649 -1.2720315019696242 1.8183394417405858 2.032692535397405 0 0 0 2.665635117154773 4 934 76 862
1648 0.47220348320468114 1.6378045667395111 2.2988091018650536 0 0 0 1.2618035209373968 76 858 14 666 51 1258 1 396
1647 0.75553324836381397 1.2255872445277269 1.8520377488938582 255 233 65 1.4212613751233569 91 1321 14 661
1646 0.44290439267249171 2.4914481106226516 1.7740832033307972 0 0 0 0.56585625517206184 76 838 93 740
1645 0.4104779883762778 2.4907673624989015 1.9238590550562999 208 191 153 1.1197671176525192 93 739 51 1246 14 653 1 364
1644 -0.78819666289307166 2.9452179631881372 1.3282573724926281 126 130 122 2.4743457511367564 76 855 14 651 24 702 47 504 66 704 1 381
1643 -0.72627601153583277 2.945326511279533 1.2850699166822142 126 130 122 1.9107807548164071 76 854 14 650 51 1245 47 503 66 703 1 380 46 1252 64 423 21 798
1642 0.6498585899392455 2.5575881179895261 1.8006401333889241 53 36 30 0.62066313795637762 76 814 14 629 66 675 1 344
1641 0.1078727953068038 2.3363891158964867 1.670963795273835 45 50 68 0.11734014775433342 76 812 14 625 51 1184
1640 -0.082532176682466402 2.4039888770328082 1.68316863683282 75 60 15 0.083332131614830135 76 780 14 595
1639 -0.33243477216085904 2.3220496405652331 1.6367150911825088 107 74 14 0.77764628841003647 76 728 14 593 51 1181 24 591 81 359 47 440 66 635 1 310
1638 -0.32838957618300951 2.2358283047811587 1.6628447196461471 8 3 1 0.40008704276287865 76 643 14 554 51 1027 1 242 66 510 47 316
1637 -0.64616794853804205 2.3854231928559861 1.4094018538911375 98 88 25 0.97044687568467136 76 724 14 552 24 636 81 413 1 240
1636 -0.90544972374116073 2.4745066928461732 1.2034886122921478 0 0 0 0.73647694358680005 76 723 14 548 51 1018 24 584 47 391 1 237
1635 -0.78554837209823369 1.6556307709450142 1.2787876345848472 250 2 0 0.67532514542194721 76 690 14 524 16 635
1634 -0.4918234802554286 2.616878184348463 1.5163793835733061 57 64 86 0.22008967235480825 76 735 14 491 51 842 24 607 47 330 66 521
1633 0.22953092349417403 2.0684102976771195 1.9723095024205972 113 92 23 0.29137347784663581 76 649 14 486 51 1034 1 188
1632 0.2441982712569381 2.0077094124840582 1.9451992498092179 112 91 23 0.45626154997423796 91 1072 14 485 51 1031 1 187
1631 0.39081925389306038 0.89540339710379613 2.1144189512269622 251 251 83 1.5173765463683875 4 262 14 428 35 1090 20 417 15 1041 89 1089 55 0 91 745 21 648
1630 0.24987378353575357 2.2888675070627089 2.2515521885663765 234 209 161 0.30809509040943478 76 532 91 1093 14 370 51 872
1629 0.28210717261956231 2.1076317735524377 2.0781306201517751 58 59 71 0.10344340494390358 76 505 14 344 51 857
1628 0.2757131630541656 1.7848214427783222 2.9339042637018067 114 81 68 0.27197022309828484 83 584 14 338 51 1041
1627 0.23794189199426694 1.8788863514786898 1.8601673637931972 112 90 25 0.17367108045788981 91 826 14 331 47 202
1626 0.30192267113360677 1.8334000145502352 1.8726204267235536 110 88 24 0.20928100280262354 83 766 14 330 51 526
1625 0.074814945857966997 1.9967889775663026 1.6468227734846523 12 10 12 0.16872127594291608 76 492 14 328 51 826 1 58
1624 -0.34784681289778313 2.008090565496405 1.5220151975454201 254 227 58 0.38940166999546666 76 249 14 315 51 1012 66 41 1 44
1622 -0.1193738473593117 2.4468288829077953 1.6951546054663513 58 36 4 0.082983538440255661 76 333 14 109
1620 -0.81272773671538789 2.3114713509754496 1.2796063843253791 30 30 36 0.29162209288957675 76 490 14 52 51 504 47 35 66 232 24 522
1618 -1.1301081336913186 1.748563338675706 1.4507868729091979 0 0 0 0.01803462062434464 77 552 9 865
1617 -1.278186286894573 2.7717819155062626 1.7184435155816946 108 110 100 1.9804175565791615 29 233 9 821 75 531 57 316
1616 -1.5547839790360503 2.4807234027766176 2.2198735842457733 105 106 98 0.35187393208184597 43 341 54 639 9 817 10 738 60 917
1615 -1.0977516275880792 2.3507886961360591 1.71342107697341 62 65 71 0.34002484936441468 77 487 9 804 75 490 57 301 10 722 33 292
1614 -1.2361995856286989 2.1269685314452942 1.8174540467879845 0 0 0 1.2374263681740156 43 210 77 275 9 798
1613 -1.1174550190472416 1.6847767745838069 1.431637551885971 0 0 0 0.76990649623331997 77 462 9 785 75 473
1612 -0.96670838655518754 2.9648571643695072 1.3370889752572892 126 128 119 0.27803289779684859 29 248 77 445 9 764 60 809
1611 -0.66329484570889574 2.8648594499377071 1.4493240131404492 64 71 69 0.31798199121890741 27 713 29 103 9 755
1610 -0.89982051033784416 2.7772473731179637 1.6649660894553882 102 103 95 0.43157947175238665 77 327 9 680 57 192
1609 -1.4483184918218674 2.5049479400276553 2.096817239395989 229 216 181 0.53173888531854496 29 75 9 667 75 305 57 104 33 203
1608 -1.5396897410836941 2.394611876928546 2.2141172914359699 0 0 0 0.90234905355322481 77 309 9 653 75 397 10 599
1607 -1.256266274763733 2.4235717361771076 2.2190401229688148 45 32 24 0.64043398529549556 77 134 9 649 75 285 57 81 10 597 60 773 33 190
1605 -0.99820142194762829 2.2302980344418066 1.4545312454835557 165 133 38 0.25911818572972362 77 86 9 616 75 242 57 35
1604 0.20758864552611692 1.0393476428837574 1.7049267698292028 10 10 11 0.40400869593432664 77 227 9 566 60 656 75 326 57 0 10 496 33 117
1603 -1.3479019628050839 2.517307133158496 2.0706323223006975 228 214 179 0.1578264450419137 77 155 9 501 75 302 57 100
1602 -0.81591424530154855 2.7295520648058944 1.701943680921318 48 48 40 0.27369298048342761 77 167 9 496 75 163
1601 -1.0495005452287616 2.4393927054999462 2.1210966838689909 6 5 5 0.37567079334513415 77 124 9 456 10 451
1600 -0.91779434393350134 2.3783806872065218 1.4258049062043945 93 58 7 0.41011848655930061 77 92 9 423 10 98
1599 -0.91454437766584518 2.3770795424603213 1.4293946369912325 93 58 7 0.27795534032699737 77 91 9 422 75 91
1597 -0.92426956074443678 2.1482962361117033 1.2372310309604251 131 100 28 0.085727536738152477 77 72 9 407
1596 -0.7948762107365579 1.9797256375845045 1.6624192369856279 60 59 70 0.26843213010484956 77 70 9 404 75 69
1595 0.13751693233188805 1.0975119681343097 1.7626515793037243 6 9 13 0.1736071237623919 77 15 9 375 75 333 57 130 33 123
1594 0.15378028334382671 0.97102701245596013 1.7927283874976057 37 40 48 0.15784270229288505 77 6 9 370 75 6 10 372
1593 -1.4656471237540045 2.4193937157327068 2.2050350573142992 61 39 29 0.83842555556094989 27 281 9 244 75 167 10 267
1592 -0.86512835305741631 2.4956196594073785 2.0781833112616734 81 73 66 0.050096738286565662 43 102 77 126 9 457
1591 -0.90198361122362469 1.9305380742409799 1.1044316032812569 112 101 27 0.50112228830492134 36 520 94 1028 92 361 37 285 26 299 77 383 45 1292 29 168 54 582 43 297
1590 0.44127765114097989 1.6546081793689165 1.5168011469089078 0 0 0 1.3181727082625527 43 501 77 595 9 913
1589 0.53592799960185422 1.2105746945752525 1.3624509581634527 138 122 48 1.3939505037084106 43 500 77 594 9 910 75 573 57 387 33 367
1588 0.57278458715505265 1.1904815340252135 1.3901189445008255 138 122 48 1.5691681335021643 43 499 77 593 9 909 60 1082 42 767 57 386 75 572 10 807 33 366
1587 -0.67634623316133446 2.3680312263768815 1.2040243190402158 100 89 27 0.45113777200581573 29 420 77 590
1586 -0.96523282043391867 1.692861856528407 1.2418446430477794 234 179 45 1.224381179822136 78 764 77 589 9 904
1585 -0.90242658459965708 2.4895043774444581 1.2681492246312214 92 102 126 0.94118777477305926 43 492 77 586 9 899
1584 -1.0755329459633938 2.3588482754357933 1.90087377205363 59 71 94 0.72282423080723579 43 493 77 577 9 890
1583 -0.29912100902699323 1.934432714982274 1.485713931281204 142 102 20 0.48325718693943548 29 390 77 572 9 866
1582 0.23535968895566853 0.83049974177323471 1.9268077983101961 130 103 27 0.9822829021438102 29 403 43 473 77 567 9 893 33 365
1581 -0.46010782989085064 2.1607137545773578 1.3686375668248616 209 163 40 0.28302058679952646 43 433 77 557 9 870
1580 -0.44277623658766546 2.1562275226483898 1.3915709805384229 209 163 40 0.29397590566115239 29 377 77 556 9 869
1579 -1.0202563497016461 2.0700739254219642 1.5609313531168729 122 88 20 0.68420732728212208 43 434 77 529 9 796
1578 -1.0906767564243192 1.8074579495824532 1.446239713569023 138 117 34 0.43612738282083158 43 423 77 525 9 788
1577 0.029301113825812432 1.0422872020416625 1.969498033296555 0 0 0 1.5461225959259761 43 418 77 509
1576 -1.2543420470715807 2.8036502151243372 1.639414008277835 105 107 99 1.8574430084035234 29 237 54 709 77 505 9 822 75 498 33 335
1575 0.34060815425185625 2.655994415184229 1.6219731379444806 39 28 26 0.27030321048247291 36 919 77 490 9 746
1574 -0.98670882839466123 2.3765355911403838 1.6206519562330262 108 98 30 1.085342495434235 29 299 43 393 77 486 9 801
1573 -1.0358325418661423 2.4025410708328221 1.493436839193284 108 98 30 0.44596247239926168 43 392 77 485 9 802
1572 -0.61046597873032771 2.3958724758497376 1.3903190571442647 100 88 23 0.69409790539260463 43 438 77 481 9 741
1571 -1.1425822652485462 2.006823731130138 1.6098514307454479 0 0 0 0.22269953888072869 43 374 77 477
1570 -1.0851396214587357 1.8667861177156218 1.4826690791483965 135 114 32 0.071907970270985014 43 368 77 470 33 271
1569 -1.196364034977579 2.3403063591691278 1.776073421988992 94 109 139 0.52443415392810844 43 326 77 413 9 750
1568 -1.2180013408575299 2.1288110109631502 1.7463352098238007 120 126 159 0.27349561405557138 43 321 77 400 75 439
1567 -0.0095694936950884019 1.2486805394691227 1.7639571263753184 107 124 161 0.14868977398106981 43 282 77 370 9 711
1566 0.19118410291062865 0.98837773991472699 1.5551313517863519 153 136 52 1.9219453063273342 29 142 9 768 60 920
1565 -0.66832837683136936 2.9779559090922052 1.2494304972134638 133 92 67 0.16111678637615531 29 132 43 258 77 348
1564 -1.0361081231876608 2.8125667828912144 1.5914541830903108 118 119 109 0.046545806367513813 29 112 43 250 77 340
1563 -1.1124636793579485 2.7813988230397548 1.6355425543078541 68 73 66 0.048110760446522537 29 108 77 339 9 692
1562 -0.97726976113387254 2.7934509771813607 1.6076015853087564 113 114 104 0.046932925121171025 29 105 77 333 9 687
1561 -0.59510089694268853 2.9098323017561345 1.371513815935181 38 25 21 0.11066861017459295 43 136 77 330 9 678
1560 -0.79134935193205347 2.8289936234952862 1.5591112075828342 98 101 93 0.26358676024951572 29 102 77 328 9 681
1559 -1.0364802578290369 2.7009825350030838 1.7266326727407471 113 112 102 0.1443043169759089 29 94 77 323 9 671
1558 -0.94014050042560227 2.4942300550933409 1.5081973385218963 95 85 22 0.19178298053431955 43 227 77 295 9 641
1557 -1.0109490782657444 2.4124815711833225 1.4448504899881511 34 40 53 0.056714660920132554 43 68 77 290 9 635
1556 -0.91111813587842483 2.4023190733334125 1.4093836107249784 116 99 26 0.17987207476407666 43 217 77 286 9 628
1555 -1.1019531511646419 2.2792603846587709 1.7167999034855763 54 52 50 0.075616722144735485 43 66 77 284 9 629
1554 -0.99796524951884447 2.3608178276590088 1.456802943564605 55 61 77 0.33982410326178109 43 214 77 283 9 627 75 367 57 158
1553 0.61595594741932125 2.5455679559385453 1.8030874175501583 105 77 65 0.58884033585609241 29 50 77 282 9 742
1552 -1.0657418377868608 2.2814685787156361 1.6665298840974601 65 47 6 0.27544229935245268 43 63 77 280 9 626 75 369 57 160 10 552 60 725 33 165
1551 -1.0881366575113771 2.2511487440283862 1.6740364074880778 97 90 27 0.069719196261949168 43 213 77 279 9 621
1550 -1.0881366575113771 2.2511487440283862 1.6740364074880778 97 90 27 0.069719196261949168 43 212 77 278 9 620
1549 -1.0567788985486546 2.1253867606879493 1.6154248401929427 117 102 27 0.12600534843621564 29 40 77 268 9 611
1548 -0.24495255630338672 2.0993954496474547 1.4911437756280885 100 89 26 0.29857721487143934 29 189 77 256 9 606
1547 -1.0099432555665819 1.7893205078842844 1.3111554981086819 39 35 34 0.23757976739851569 43 181 77 245 9 60
1546 1.1047007420767272 1.3737130689361241 1.7577490210888744 0 0 0 1.2111060048183833 27 415 43 289 77 235
1545 0.1069132407379991 1.4321642836267885 1.48796255264585 119 133 168 0.191808808048792 43 20 77 232 9 578
1544 0.33673682915690001 1.1429686271300319 1.4765660219040175 124 135 161 0.67648204017125479 43 170 77 226 75 3 10 495 60 813 33 0
1543 -0.87394513641414695 3.0946013123236873 1.1432276265723433 59 41 33 0.44226305593535747 27 396 77 224 9 563 75 320 57 117
1542 -0.58009133587405681 2.9287568419088172 1.338610284894022 34 25 22 0.11689866464061942 43 142 77 192 9 289
1541 -0.73624044500808394 2.8744555167398338 1.4684649887653136 61 69 68 0.098764362939864625 43 138 77 191 9 685
1540 -1.2079043764913784 2.6449000521529795 1.8799459206000078 128 125 113 0.2548029619624555 29 92 77 177 9 518
1539 -1.3833948588832685 2.5719163086793158 1.9831040759138086 210 199 169 0.17965683595519824 29 86 77 172 9 674 75 409 57 195
1538 -0.86521951683929943 2.7397342162884155 1.7042370438344436 60 62 55 0.23384339782370248 43 127 77 170 9 510 75 171
1537 -0.82916239153588078 2.7428068718712453 1.6303216559149951 78 84 79 0.93361879110797985 43 125 77 169 9 502 75 284 57 80
1536 -1.1369435528780645 2.6242616336213755 1.9187829636445444 121 120 107 0.19913726557443626 29 87 77 168 9 668
1535 -0.84069329813274252 2.7191835968477873 1.7063901726195669 85 90 83 0.14766839545172136 27 347 77 164 9 492 75 290 57 88
1534 -1.5095293569659907 2.4711315646590353 2.1715758440915476 65 43 28 0.72840296632375645 27 302 77 160 9 507 75 307 57 105 10 487 60 444 33 103
1533 -0.8727630335940052 2.6537704338789125 1.7808987669094523 88 89 81 0.1088334132665271 29 76 43 115 77 147 9 656
1532 -1.3859895417135244 2.4306101113500591 2.2255477277369886 51 35 25 0.10249708797951855 78 401 77 141 9 482
1531 -1.2297409527813692 2.4215241853505218 2.2164122459316173 45 29 20 0.28040388759764123 27 622 77 133 9 470 33 90
1530 -1.1008113629725282 2.4583827909216831 2.1664233307991512 90 88 75 0.34768131353342141 43 105 77 132 9 467 75 279 57 72
1529 -1.2514424280557039 2.357680841355589 2.2732846447304174 46 27 17 0.16821829307549116 27 615 77 123 9 455
1528 0.036045663610250162 2.6763986735754339 1.7260328562992944 74 83 84 0.16868612569415664 43 99 77 113 9 177
1527 0.25812320431137942 2.5807908095032013 1.7790070783127758 208 194 160 0.98464404793345417 29 52 77 102 9 429 75 493 57 306
1526 -0.97254742314047404 2.4371585926075845 1.3763061064610631 93 110 142 0.032084569510474892 43 69 77 99 9 636
1525 -0.89117833771215915 2.3748864163106029 1.3557088250519236 111 99 30 0.26343565214575343 43 61 77 88 9 147
1524 -1.0248333431496097 1.9949031428772528 1.5263418944401064 52 49 40 0.1562175185504566 29 27 77 68 9 97
1523 -0.18554946017236498 2.1133778327065711 1.4825222902163075 75 59 11 1.26872370973184 27 513 78 339 77 67
1522 -0.075403889184957246 1.8250311154554422 1.4886253360096051 90 49 4 0.27828814587400352 27 478 43 35 77 48 9 592
1521 -0.53031793432933771 1.7383061209822912 1.1986906307598331 243 206 72 0.29889248305697769 43 30 77 34 9 35
1520 -0.81418873028163097 1.6681534850881834 1.2736544060756823 232 3 0 0.22490559007930311 43 29 77 31 9 587
1519 0.32096414119989541 1.1534725808125892 1.5089127394514923 5 5 4 0.61150183143987302 43 7 77 9 75 325 57 122 33 116 60 658
1518 0.30070980840128181 1.1603556147449632 1.4848438274070324 5 5 4 0.15756827447272914 43 6 77 8
1517 -1.3235180172436716 2.4121056003682453 2.2459155382904634 54 36 25 0.29216381814227577 37 142 26 134 43 107 78 172 54 176 77 135 9 473
1515 0.80803427443750231 2.5262056838024392 1.841155629578312 36 25 22 1.0119390519256191 27 589 94 1104 45 1159 36 343 48 1095 49 909 29 49 43 225 48 1169 37 542 26 576 83 1153 91 1207 78 652 54 627 77 87 51 1147 46 625
1513 -1.3473617358443948 2.1998327916490519 1.9839181980929357 0 0 0 1.1014958372656016 29 433 77 603 57 400
1512 0.56332755623920938 2.388846995274216 1.8235675465001164 214 200 166 1.1949418003033669 78 827 43 506 77 599
1511 -0.94974826867398354 2.4427505120205786 2.1121600124908713 0 0 1 1.9844825390818648 29 421 43 503 77 597 9 907 33 380
1510 -0.87252930555116481 2.2244785116099073 1.4809672987358533 158 124 34 0.7775454987140713 54 794 43 491 77 585
1509 0.19366332850210688 1.591063238023217 1.4544818560131296 82 83 93 0.61689881576588401 29 406 43 485 77 581
1508 -0.63602179210338672 2.8199771749063474 1.4178760240512207 2 3 5 1.5061125994597566 27 1203 29 401 43 471 77 579 9 900
1507 -1.0796624463149052 2.0219308199764039 1.559115624420897 114 0 0 0.084693497529099979 29 376 43 458 77 559
1506 0.11999323953972335 0.9993313300897787 1.9170981973303327 143 113 36 1.2161182156953818 29 363 43 443 77 570 9 881
1505 -1.1893945522415095 2.2970409226192632 2.3635841654561003 162 114 87 0.89943851359035165 29 302 43 398 77 492 9 853 75 527 57 309 33 329
1504 -0.92321400797196485 2.4997094554458719 1.2900974246135313 90 106 137 0.43994273042194737 29 304 43 394 77 488 9 805
1503 -1.0744103329648542 2.3329758195963426 1.6452349488565223 100 93 27 0.60217079585737554 29 205 43 390 77 483 9 848
1502 0.080792917338828873 1.6995365910482774 1.4816972251191189 155 119 39 1.830032538477838 27 1066 29 267 43 360 77 519
1501 0.98238724904778196 1.2989455810385964 1.6369810213169835 0 0 0 1.6611640785420807 27 1121 43 354
1500 0.5329645083392357 1.3567164241791412 1.4003356349975584 129 118 49 0.25204688610075032 54 652 43 351 9 773
1499 0.33227323806680903 1.3115427816383671 1.4825145323567028 122 101 42 0.45540129501131277 29 333 43 350 77 454 9 708
1498 0.63180539864266205 2.6296565174302713 1.8433319877993293 88 88 83 2.088733789137974 37 547 43 336 81 382
1497 -0.90006862660948439 2.5369593275424878 1.2807268638384703 55 65 87 0.053747417754282122 29 211 43 330 77 416
1496 -0.95308480547776142 2.3649815842162893 1.4272427756359285 105 95 28 0.47048122346057286 29 202 43 325 77 404 9 743 75 441 57 242 10 548 33 237
1495 1.0309314128865674 2.3851275281496704 2.0379867952312551 92 64 53 0.27561910082729185 29 293 43 324 77 399 9 738
1494 -0.037323070502111845 1.9620935263094714 1.6462844475564871 132 100 37 0.34716945270612587 29 173 43 310 77 61 9 400
1493 0.48660748143207677 1.3928533929294815 1.5768615371026531 94 66 10 0.37783196744952208 29 5 43 284 77 231 9 577
1492 0.1411979543199704 1.4484748090338462 1.392497592954566 238 204 71 0.19043004227380875 29 258 43 283 77 457 9 777
1491 0.020492170011754973 1.2102693775709967 1.770156718872228 103 118 154 0.25889822173126315 29 156 43 281 77 369
1490 0.33404608749248405 1.1450498372869613 1.7441138537020646 134 111 44 0.52560666419259139 29 151 43 276 77 364 9 706 75 416 57 210 10 692 33 219
1489 -0.69123305957773307 2.9499215010662891 1.335482102960315 33 23 18 0.18599140661517646 29 125 43 255 77 344 9 691
1488 -1.0954068553322032 2.8324825940091927 1.57587139911212 122 124 114 0.10446204666397231 29 119 43 253 77 349
1487 -0.93324977590186253 2.6783148369836707 1.7584208491820292 91 94 86 0.22251788619791857 29 224 43 243 77 317 9 754
1486 -0.93806789793006673 2.5215050289408842 2.0363167695293218 69 67 59 0.19632864735114347 29 66 54 187 43 233 77 305 9 647
1485 -0.94526050913112836 2.6176462743434468 1.4420006473565956 56 45 33 0.95066690919940922 29 73 43 231 77 130
1484 0.25023023821202167 2.6686510367335767 1.6259087792276938 49 36 30 0.089658411040631561 29 55 43 229 77 291
1483 -0.68215263673504667 2.4154416516558213 1.4165640835416269 101 79 17 0.13689079938509338 27 613 43 216 77 281 9 421
1482 -0.92368805540950494 2.2284304695633175 1.3188688594715405 134 104 26 0.30971865432690643 29 42 43 206 75 358 57 151 33 40 10 411
1481 -0.52063158086212935 1.9044734095121085 1.2486407161955215 88 103 137 0.20739731714204629 29 21 43 188 77 247 9 397
1480 0.17097452739349814 1.6664006522987087 1.4494430807246843 5 7 12 0.18139883206439225 29 10 43 178 77 33
1479 0.1411016762887447 1.0617862382835612 1.8973687607643235 149 130 50 0.48594516980339753 29 1 43 173 77 365 9 703
1478 -1.1985029764882922 2.7592306908226281 1.6664393984397898 129 128 115 0.12469196976409448 78 212 43 140 77 195 9 537
1477 -1.3133086853004905 2.5746664014866245 2.0101223934971326 93 92 80 0.40742525002209673 29 84 43 121 77 319 9 673
1476 -1.5487648612885214 2.4527138990823869 2.2047109088757559 64 45 35 0.15503854339234138 54 189 43 113 77 159 9 506 75 309 57 109 10 490 33 105
1474 -0.89877310950508771 2.0782821632138955 1.7029606694627579 63 52 49 0.51248607615584907 29 36 43 53 77 264 9 608
1473 -0.054245488670085253 1.7521377791328445 1.5272568381243892 142 91 10 0.54289252459295079 27 786 43 32 77 43 9 58
1472 0.22361470693573779 1.3053624397119268 1.8593901054703315 101 51 2 0.18536396828690313 54 294 43 21 77 22
1471 0.55073734450517708 2.391307561043337 1.8098265633937696 200 184 148 1.6763387163602581 78 826 54 824 43 505 77 598 9 915
1470 -1.3309698020788427 2.2754911148252659 2.0029829041714833 0 0 0 2.2262602242226941 78 824 54 823 43 507
1469 -0.74839517254224952 2.7260022537759765 1.4815194390810791 10 10 11 1.1825857367770356 29 426 78 816 54 812 43 504 77 601
1468 0.74806033121921967 1.2236020589302303 1.3377770332826164 0 0 0 1.8051269509301719 27 1157 54 790 43 475 77 547 9 880 10 764 33 337
1467 1.1398896218846692 2.3189980805253074 2.0722865562705115 191 178 145 1.1478863015194343 78 779 54 781 43 462 29 392 27 1224 77 561 9 845
1466 -1.0061623878402419 1.7665990141143435 1.297718571262005 70 48 33 0.98004641936041392 29 370 54 771 43 478 77 550 9 863
1465 -1.2487528994983177 2.3934869901787419 2.2254165597204927 55 39 32 0.41827300545883656 78 721 54 748 43 440 77 566 9 876 75 556 57 370 10 797 33 353
1464 1.0128254186110761 2.438813345320074 1.9735845702682315 51 34 29 0.0093793776090288165 78 748 54 744
1463 0.05815142643643486 2.3706684887818255 1.6330705178277349 40 48 68 0.075650906678091823 78 744 54 738
1462 -1.0722241124616141 2.0172866575248034 1.5789222414200661 146 0 0 0.48498196517968883 78 700 54 734 43 457 29 375 77 558
1461 0.26045551227590352 1.819031817410022 1.6810363436998459 0 0 0 0.29214917877938018 78 696 54 732
1460 1.0338917130504497 1.3750958686768684 1.8460908381348764 0 0 0 1.0366148469525007 78 767 54 725
1459 0.74556272314396765 1.26667057250249 1.4340054571080825 108 92 25 0.57088662773903709 78 759 54 718 43 417
1458 -1.2358132913547741 2.8291133711957861 1.7359422793571884 0 0 0 0.8177537872409818 29 322 54 713 9 856
1457 -0.16902522610755966 2.9355391130498885 1.4510887180312029 0 0 0 2.1959090704560089 29 229 54 712
1456 -0.069655243114588428 2.9075039203256932 1.5281144548619718 0 0 0 0.038058655172705944 78 727 54 710
1455 -0.79769865914216465 2.7027180772559238 1.5112897941124099 6 7 7 0.22210983699021986 78 659 54 705
1454 -0.48164978726032476 2.6222982912119575 1.4888710610253508 51 61 84 0.043289481522644419 78 723 54 702
1453 -1.373596558826782 2.3057998263804138 2.2824987067746134 0 0 0 1.0818492482422932 27 1098 54 699 77 424
1452 -0.29413812394836042 2.4780490925372338 1.5808555641645403 78 61 14 0.040441983323615122 78 717 54 698
